-0.16483229 0.11544515 -0.015708862 0
-0.15510608 0.11584877 -0.015688023 0
-0.14775902 0.11569689 -0.015823908 0
-0.13365716 0.1163941 -0.016550496 0
-0.12735279 0.11555039 -0.016409678 0
-0.053380389 0.11830661 -0.013836701 0
-0.044137064 0.11599549 -0.012608553 0
-0.036414184 0.11508419 -0.012727427 0
-0.023796488 0.11335811 -0.014107798 0
-0.015020703 0.11472694 -0.014551036 0
-0.0059597678 0.11458617 -0.015102612 0
0.0057094875 0.11479845 -0.014115229 0
0.015011173 0.11462993 -0.014021428 0
0.025011504 0.11464483 -0.01400805 0
0.034956068 0.11466978 -0.013491255 0
0.044864755 0.11493237 -0.012340941 0
0.054850135 0.11507107 -0.011923421 0
0.064837508 0.11494153 -0.012122381 0
0.074797168 0.11505387 -0.011912784 0
0.084739424 0.11497192 -0.011849397 0
0.094525807 0.11474864 -0.011590227 0
0.10493429 0.11496536 -0.011421995 0
0.11451137 0.11472899 -0.011295726 0
0.12280388 0.11525403 -0.011161163 0
0.13504547 0.1167974 -0.011004769 0
0.14459164 0.1164568 -0.011028199 0
0.15445021 0.11381873 -0.010999975 0
0.17405614 0.11272023 -0.011004368 0
0.18754897 0.1180146 -0.011013181 0
0.19435838 0.11427946 -0.011018578 0
0.20719531 0.11639404 -0.010999939 0
0.21437894 0.11394696 -0.011017283 0
0.22414698 0.11472332 -0.011010123 0
0.23252594 0.11305016 -0.010999946 0
0.25607309 0.11516016 -0.011 0
0.24596465 0.078191198 -0.011927918 0
-0.26446337 0.12518437 -0.018545419 0
-0.25516379 0.12488379 -0.017776066 0
-0.24610353 0.12335688 -0.017767748 0
-0.23372601 0.12619588 -0.0175616 0
-0.2250953 0.12507325 -0.017463632 0
-0.21513765 0.12498004 -0.017713863 0
-0.20491859 0.12504435 -0.017145963 0
-0.19504452 0.12504822 -0.017043706 0
-0.18786423 0.12449596 -0.016403249 0
-0.17334042 0.12454191 -0.016557809 0
-0.16471988 0.12503989 -0.016297545 0
-0.15615876 0.12446437 -0.016659325 0
-0.1433188 0.12635139 -0.016480491 0
-0.13588542 0.12319198 -0.017163251 0
-0.12813501 0.12157056 -0.017040949 0
-0.051514979 0.12443364 -0.012489628 0
-0.044740174 0.12482506 -0.013064677 0
-0.037361201 0.12435318 -0.013729509 0
-0.021106055 0.12502711 -0.014505094 0
-0.015059938 0.12482354 -0.015080933 0
-0.0047174911 0.12442281 -0.015505265 0
0.0050079306 0.12473931 -0.014345877 0
0.015011096 0.12469505 -0.014148426 0
0.025017448 0.12469083 -0.014122833 0
0.034941938 0.12478209 -0.01372108 0
0.0449223 0.12487619 -0.012775011 0
0.054889124 0.12489944 -0.012561371 0
0.064940199 0.12489036 -0.012953714 0
0.074828222 0.12487405 -0.012598451 0
0.08482752 0.12494897 -0.012509191 0
0.094850995 0.12500282 -0.011856977 0
0.10469214 0.12485845 -0.011759669 0
0.11451805 0.12503597 -0.01170254 0
0.12457702 0.12579373 -0.011412082 0
0.1351856 0.12641476 -0.011308163 0
0.14519763 0.12540573 -0.011229568 0
0.15289739 0.1254608 -0.011186781 0
0.16748299 0.12732436 -0.011005145 0
0.1754428 0.12654939 -0.01112716 0
0.18589613 0.12493243 -0.011248325 0
0.19470713 0.12569806 -0.011396267 0
0.20556977 0.12593907 -0.011175176 0
0.21388826 0.12622796 -0.011274273 0
0.22530952 0.12456115 -0.011027604 0
0.23555326 0.12671833 -0.011277148 0
0.24410257 0.12650181 -0.011049613 0
0.2473948 0.12244801 -0.011195792 0
0.25995937 0.10831989 -0.011456477 0
-0.26517016 0.13456011 -0.019029066 0
-0.25644854 0.13283919 -0.018561712 0
-0.244431 0.13381891 -0.018915508 0
-0.23488052 0.13228914 -0.018539513 0
-0.22548622 0.13162331 -0.017852604 0
-0.21550119 0.13104358 -0.018996594 0
-0.20470744 0.13468841 -0.017086508 0
-0.19613211 0.13438086 -0.015961111 0
-0.18730821 0.13534531 -0.015075151 0
-0.17294519 0.13501221 -0.016282292 0
-0.16493487 0.1350292 -0.016450066 0
-0.15627341 0.13586245 -0.015577129 0
-0.14546226 0.13499109 -0.018132359 0
-0.13915867 0.13337883 -0.017327836 0
-0.1245568 0.13061386 -0.019999981 0
-0.062558934 0.13931039 -0.019999981 0
-0.053079814 0.13580018 -0.013676343 0
-0.045280322 0.1348521 -0.013186874 0
-0.036548961 0.13602228 -0.014839929 0
-0.021017244 0.13341558 -0.015217138 0
-0.016996868 0.13337427 -0.015362972 0
-0.0033599839 0.13522857 -0.016502688 0
0.0049687154 0.13479879 -0.014465486 0
0.015025755 0.13478579 -0.014179353 0
0.025034694 0.13470565 -0.013900665 0
0.035007473 0.13469069 -0.013832095 0
0.044999082 0.13469213 -0.013494748 0
0.054847106 0.13461185 -0.013169629 0
0.064920835 0.13451752 -0.01291436 0
0.074900024 0.13474168 -0.012844698 0
0.084835909 0.13464865 -0.012818865 0
0.094789468 0.1348228 -0.012346088 0
0.10470354 0.13493371 -0.011976948 0
0.11475794 0.13499585 -0.011912173 0
0.1247941 0.1349024 -0.011911644 0
0.13508341 0.13471226 -0.011526099 0
0.14489082 0.13482296 -0.011078323 0
0.15540314 0.13571519 -0.01108758 0
0.16552122 0.1351961 -0.011311181 0
0.17505443 0.13518429 -0.011147351 0
0.18545306 0.13508131 -0.01106646 0
0.1952107 0.13476355 -0.011195396 0
0.20551953 0.13512854 -0.011302254 0
0.21460699 0.13538289 -0.011187732 0
0.22538087 0.13567068 -0.01114088 0
0.23546509 0.13523999 -0.011383289 0
0.24388069 0.13651939 -0.011122778 0
0.25108844 0.13185199 -0.011072053 0
0.25808203 0.11314157 -0.011462052 0
-0.26658279 0.14175875 -0.019312106 0
-0.25310811 0.14241758 -0.018726267 0
-0.24770273 0.14258669 -0.0181395 0
-0.23059841 0.14138635 -0.019999981 0
-0.22610383 0.14248353 -0.017439352 0
-0.21214032 0.14609456 -0.018787852 0
-0.20653276 0.1412221 -0.017764885 0
-0.19387494 0.14408459 -0.015872585 0
-0.18606901 0.14374387 -0.017484164 0
-0.17207882 0.14201096 -0.016162569 0
-0.16430531 0.144079 -0.017447315 0
-0.1553477 0.14459966 -0.017807579 0
-0.14689738 0.1427968 -0.017807739 0
-0.137422 0.14188376 -0.015399953 0
-0.052062593 0.14340913 -0.011620132 0
-0.044936195 0.14492157 -0.014270919 0
-0.035933696 0.14498863 -0.014549006 0
-0.029248778 0.1488516 -0.013755513 0
-0.017559892 0.14359315 -0.01457139 0
-0.0035271652 0.14495616 -0.014612562 0
0.0049668192 0.14474553 -0.014392238 0
0.015021256 0.14479668 -0.01415957 0
0.025024531 0.14472878 -0.013813772 0
0.034988396 0.14470614 -0.0135741 0
0.045013268 0.14476006 -0.013944915 0
0.054919854 0.14467879 -0.013421082 0
0.064844564 0.14460449 -0.012876762 0
0.074753448 0.14465976 -0.012874586 0
0.084898084 0.14485137 -0.012544788 0
0.094838448 0.14477667 -0.012527921 0
0.10470346 0.14493658 -0.012361386 0
0.11468247 0.14491081 -0.011661443 0
0.12478533 0.14494841 -0.011942987 0
0.13499069 0.14496844 -0.011381762 0
0.14510068 0.14580014 -0.011229209 0
0.15544125 0.14518562 -0.011147976 0
0.16523936 0.14465284 -0.011119779 0
0.17552818 0.14449038 -0.011537044 0
0.18459599 0.14484835 -0.011523224 0
0.19512741 0.14478076 -0.011249332 0
0.20455004 0.14422427 -0.011163861 0
0.21525422 0.14478731 -0.011210309 0
0.22532116 0.14495066 -0.011384472 0
0.23536018 0.14481871 -0.011471862 0
0.24415547 0.14392023 -0.011261458 0
0.25488371 0.14356622 -0.010999938 0
0.26054588 0.14353997 -0.010999976 0
-0.26400813 0.15898104 -0.013999939 0
-0.25211203 0.15923502 -0.013999967 0
-0.24464588 0.15941137 -0.016312469 0
-0.23454979 0.1590092 -0.015265271 0
-0.22426857 0.15847573 -0.016119078 0
-0.21731265 0.15787445 -0.015461171 0
-0.20209226 0.15635505 -0.017865358 0
-0.19533646 0.15561014 -0.017694546 0
-0.18924627 0.15907083 -0.017837165 0
-0.17177849 0.15469816 -0.016101068 0
-0.16503368 0.15479793 -0.018058306 0
-0.15725768 0.15218289 -0.019036172 0
-0.1452755 0.15140826 -0.014999966 0
-0.060698334 0.15798084 -0.013090865 0
-0.053807613 0.15658496 -0.013528455 0
-0.04492566 0.1548498 -0.014444067 0
-0.0350389 0.15485489 -0.014566709 0
-0.027682381 0.15575005 -0.015170801 0
-0.011611058 0.15512389 -0.01522689 0
-0.0049844445 0.15482785 -0.014508762 0
0.0049936189 0.15475887 -0.01405721 0
0.014990917 0.15469724 -0.01378803 0
0.024991464 0.15471379 -0.01374373 0
0.03497275 0.15466064 -0.01357922 0
0.044975642 0.15464711 -0.013309797 0
0.054981936 0.15465361 -0.013602373 0
0.06488394 0.15468085 -0.013477378 0
0.075006597 0.15460347 -0.013310463 0
0.084993891 0.15465918 -0.013314607 0
0.094633281 0.15484585 -0.012555532 0
0.10484727 0.15489374 -0.012449563 0
0.11458506 0.15480669 -0.011598573 0
0.12485792 0.1548744 -0.012225932 0
0.13515387 0.1550146 -0.011783432 0
0.1450143 0.15437937 -0.011497251 0
0.15485384 0.15490101 -0.01187826 0
0.1648864 0.15484697 -0.011259275 0
0.17488492 0.15535201 -0.011126433 0
0.18522294 0.154773 -0.011243849 0
0.19499515 0.15497306 -0.01157409 0
0.20537417 0.15516253 -0.011589631 0
0.21464916 0.15475725 -0.011190034 0
0.22519074 0.15458815 -0.011415808 0
0.23422857 0.1545089 -0.011248477 0
0.2457335 0.15677555 -0.011029013 0
0.25369132 0.15814951 -0.011007141 0
0.25875428 0.13979633 -0.011356442 0
-0.26204285 0.16702472 -0.018008132 0
-0.25439996 0.16608277 -0.017488262 0
-0.24492338 0.16562968 -0.0172738 0
-0.23526852 0.16534345 -0.017641509 0
-0.22510764 0.1651902 -0.017298903 0
-0.21756348 0.16464682 -0.017299052 0
-0.20171787 0.16449115 -0.01875487 0
-0.19468087 0.16517073 -0.018867493 0
-0.1886805 0.16544063 -0.018157551 0
-0.17474112 0.16485502 -0.018683109 0
-0.16553104 0.16081008 -0.019249968 0
-0.061544176 0.16584647 -0.015000014 0
-0.055079296 0.16489521 -0.014785297 0
-0.04508926 0.16493317 -0.014972962 0
-0.035049461 0.16488905 -0.014880905 0
-0.025207931 0.1647791 -0.015903495 0
-0.017344818 0.16607802 -0.015895838 0
-0.0042696125 0.16442874 -0.013947776 0
0.0049959929 0.16465367 -0.013737926 0
0.014996044 0.16466068 -0.01382813 0
0.025008632 0.16461517 -0.013540815 0
0.034931008 0.16470371 -0.013646089 0
0.045024566 0.16470748 -0.013542102 0
0.054982468 0.16463263 -0.013545901 0
0.064945646 0.16461861 -0.013459584 0
0.074821353 0.16467184 -0.012887343 0
0.084772646 0.16479351 -0.011948181 0
0.094822004 0.16485596 -0.012904109 0
0.1050036 0.16457449 -0.013284374 0
0.11470532 0.1647051 -0.0124329 0
0.12474147 0.16469936 -0.011641623 0
0.134931 0.16471273 -0.012031431 0
0.14506406 0.16501291 -0.01178164 0
0.1551172 0.16496661 -0.011378098 0
0.16527854 0.16489273 -0.011551446 0
0.1745154 0.16465156 -0.011151664 0
0.18579428 0.16432855 -0.011182802 0
0.19468641 0.16501072 -0.011664362 0
0.20519274 0.16477601 -0.012743629 0
0.21515778 0.16492647 -0.011492274 0
0.22439149 0.16486627 -0.011355673 0
0.23579386 0.164206 -0.011001709 0
0.24542674 0.16366416 -0.011212073 0
0.25378075 0.16406453 -0.011130301 0
0.26054618 0.16797298 -0.010999978 0
-0.26154396 0.17173104 -0.019542569 0
-0.25444466 0.17520808 -0.019234311 0
-0.24505886 0.1753051 -0.019457174 0
-0.23533675 0.17515993 -0.019511808 0
-0.22559668 0.17452154 -0.018642606 0
-0.21500798 0.17559372 -0.01801645 0
-0.20378004 0.17628551 -0.018797627 0
-0.19485986 0.17513414 -0.01867217 0
-0.18832503 0.17265937 -0.017827015 0
-0.17577176 0.17298253 -0.016753037 0
-0.16898626 0.17495917 -0.011999965 0
-0.061978497 0.17446387 -0.0152072 0
-0.055158533 0.17493111 -0.01537922 0
-0.045534391 0.17440313 -0.014676086 0
-0.03657702 0.17193103 -0.016588805 0
-0.022999184 0.17629795 -0.014130044 0
-0.015370828 0.17497924 -0.01392608 0
-0.0033866127 0.17390521 -0.013287765 0
0.0050282469 0.1747641 -0.014250346 0
0.015021044 0.17468904 -0.013867239 0
0.024957292 0.17461209 -0.013591342 0
0.035000384 0.17452806 -0.013161592 0
0.045021873 0.17462376 -0.013504009 0
0.054878123 0.17464428 -0.013031443 0
0.064995073 0.17469832 -0.012700113 0
0.074921668 0.17480466 -0.013133533 0
0.084868595 0.17497072 -0.01326376 0
0.094950691 0.17457891 -0.013419062 0
0.10499918 0.17471708 -0.013362985 0
0.11497327 0.17462207 -0.013453078 0
0.12475736 0.17482203 -0.012914069 0
0.13496114 0.17482872 -0.01291695 0
0.14490105 0.17483883 -0.012075274 0
0.15521385 0.17466217 -0.011705078 0
0.1649238 0.17494376 -0.011633747 0
0.17467301 0.17487629 -0.012110234 0
0.18510683 0.17507604 -0.011921095 0
0.19454037 0.17491347 -0.011951214 0
0.20502551 0.1748008 -0.011602 0
0.21533561 0.17471807 -0.011445396 0
0.22498171 0.1751253 -0.011322161 0
0.23528281 0.17653745 -0.011043027 0
0.24500392 0.17644463 -0.011038858 0
0.24454112 0.17018826 -0.01125301 0
0.25377357 0.14021975 -0.011766595 0
-0.26008067 0.18879297 -0.017999947 0
-0.25310245 0.18503095 -0.018207703 0
-0.24521644 0.18424398 -0.019427855 0
-0.23479198 0.18504724 -0.018216571 0
-0.22496238 0.18523422 -0.017563049 0
-0.21593329 0.18438227 -0.018276544 0
-0.20332238 0.1855194 -0.017417934 0
-0.19634154 0.18413208 -0.017813383 0
-0.061923239 0.18529132 -0.016044276 0
-0.055519115 0.18576047 -0.01610449 0
-0.044813968 0.18635727 -0.013775834 0
-0.035116997 0.18625796 -0.014699915 0
-0.02477048 0.18508868 -0.014480744 0
-0.01502712 0.18482129 -0.014314266 0
-0.0069607883 0.1856897 -0.013873424 0
0.0058483253 0.18396761 -0.014292172 0
0.015006843 0.18466897 -0.013845844 0
0.024994768 0.18470316 -0.013926639 0
0.034944262 0.1848703 -0.013921623 0
0.045050517 0.18450111 -0.013214366 0
0.054939937 0.1847426 -0.013581784 0
0.064996354 0.18489204 -0.013485168 0
0.075128637 0.18480624 -0.013792175 0
0.084928766 0.1845874 -0.013394428 0
0.09484084 0.18457882 -0.013221175 0
0.104839 0.18462802 -0.013411887 0
0.11469572 0.18479107 -0.01236226 0
0.12504458 0.18484606 -0.012950155 0
0.1349358 0.18462896 -0.013366131 0
0.14482762 0.18481024 -0.012261041 0
0.15496182 0.18491597 -0.012600017 0
0.16481337 0.18482968 -0.012450228 0
0.17472936 0.18475398 -0.012223199 0
0.18485798 0.18470439 -0.012514957 0
0.1947436 0.18496823 -0.012430411 0
0.20493692 0.18485238 -0.012022317 0
0.2147191 0.18412437 -0.011372707 0
0.2258044 0.18441726 -0.011133418 0
0.23539583 0.18383102 -0.011089667 0
0.24352507 0.18260582 -0.01109716 0
0.22977373 0.16751114 -0.011536632 0
0.21887209 0.096177548 -0.013430341 0
-0.26060504 0.19241367 -0.018653808 0
-0.25635955 0.19198401 -0.018820303 0
-0.2430886 0.19368514 -0.018786518 0
-0.23466557 0.1944253 -0.018288529 0
-0.22536983 0.19334356 -0.019025177 0
-0.21666755 0.19353588 -0.018425399 0
-0.20441577 0.19326627 -0.017305981 0
-0.19834849 0.19160561 -0.018002458 0
-0.070687994 0.19828957 -0.014428543 0
-0.064146206 0.19559817 -0.015289983 0
-0.055177454 0.19486541 -0.015073937 0
-0.045058418 0.19493966 -0.014770121 0
-0.035043828 0.19478497 -0.015000512 0
-0.025116611 0.1949982 -0.015218467 0
-0.014994407 0.19487929 -0.014648491 0
-0.0053582331 0.19503057 -0.014057511 0
0.0031986625 0.19668515 -0.013806626 0
0.015845349 0.19438498 -0.013430612 0
0.025016408 0.1947832 -0.01418938 0
0.034973864 0.1947623 -0.013999905 0
0.04504149 0.19482818 -0.01384923 0
0.055016454 0.19464456 -0.013732455 0
0.064920887 0.19459333 -0.013654782 0
0.075014718 0.19456875 -0.013591989 0
0.084805459 0.19472401 -0.012909408 0
0.094781116 0.19456568 -0.012028035 0
0.1050763 0.19467221 -0.013819393 0
0.11504454 0.19497067 -0.013940956 0
0.12507647 0.19475959 -0.013612788 0
0.13498528 0.194619 -0.013504857 0
0.14487024 0.19486766 -0.013003881 0
0.15495954 0.19467199 -0.0129885 0
0.16496471 0.19459383 -0.012958872 0
0.17493716 0.19482669 -0.013008709 0
0.18481813 0.19480935 -0.012532627 0
0.19474319 0.19482431 -0.011997364 0
0.20470986 0.19465807 -0.011600195 0
0.21554491 0.19492185 -0.011559306 0
0.2244318 0.19456036 -0.011206319 0
0.23438032 0.19477969 -0.011298869 0
0.24571042 0.19645949 -0.011028787 0
0.25386035 0.19674218 -0.011017128 0
0.26054618 0.19341913 -0.010999978 0
-0.26436678 0.20591712 -0.016888849 0
-0.25531766 0.2078208 -0.017117608 0
-0.24206506 0.20574479 -0.018223504 0
-0.23548837 0.20480943 -0.018114936 0
-0.22828315 0.20441048 -0.0180292 0
-0.21261279 0.20355608 -0.016229816 0
-0.2090144 0.20226872 -0.014918879 0
-0.071318932 0.20672205 -0.016080869 0
-0.065136865 0.20493172 -0.015610728 0
-0.055154186 0.20518456 -0.015695868 0
-0.045142233 0.20514674 -0.015488439 0
-0.035122536 0.20506392 -0.016083129 0
-0.025070647 0.20499316 -0.015470638 0
-0.015066642 0.2051146 -0.015575401 0
-0.0050043198 0.20513166 -0.015242272 0
0.0037132739 0.20526606 -0.013937688 0
0.016123034 0.20412201 -0.014104 0
0.02503158 0.20487046 -0.014381366 0
0.035048168 0.20492344 -0.014546978 0
0.045021474 0.20496701 -0.014623631 0
0.05508111 0.20479782 -0.014139818 0
0.065065026 0.20490442 -0.014323737 0
0.074983492 0.20477489 -0.013948651 0
0.084937558 0.20481357 -0.014032782 0
0.0951166 0.2050041 -0.013669808 0
0.10505036 0.20484862 -0.014164975 0
0.11505677 0.20489475 -0.014132797 0
0.12520485 0.20490967 -0.014540978 0
0.13515668 0.20483957 -0.014080825 0
0.14491187 0.20451625 -0.013532478 0
0.15524425 0.20460491 -0.013705672 0
0.16522329 0.20499653 -0.013916072 0
0.1750766 0.2047686 -0.01382064 0
0.1851036 0.20479858 -0.013876738 0
0.19483645 0.20450522 -0.012150809 0
0.20525359 0.20485796 -0.013260685 0
0.21532132 0.20483522 -0.013272318 0
0.22521001 0.20488064 -0.01253782 0
0.23516595 0.20507389 -0.012453226 0
0.24510221 0.20466574 -0.011181579 0
0.2530756 0.20476438 -0.011105388 0
0.24768557 0.1868425 -0.014451513 0
-0.26355964 0.21594779 -0.013346126 0
-0.25522274 0.2150749 -0.018767701 0
-0.2452911 0.21478611 -0.01881676 0
-0.23681588 0.21099514 -0.019129096 0
-0.22919573 0.21028529 -0.019999981 0
-0.072354376 0.21552031 -0.015893169 0
-0.065262541 0.21490976 -0.016417569 0
-0.055224571 0.21502987 -0.015996445 0
-0.045334548 0.21478485 -0.015731843 0
-0.034706991 0.21519829 -0.015684258 0
-0.025108842 0.21505238 -0.015674608 0
-0.015015244 0.21499801 -0.015446693 0
-0.0050059035 0.2151608 -0.015269716 0
0.0049810805 0.21524723 -0.015095653 0
0.013152416 0.2155167 -0.014397029 0
0.025783183 0.21452583 -0.014816716 0
0.035108741 0.21514206 -0.014992053 0
0.04504757 0.21505561 -0.014730409 0
0.055072784 0.21496238 -0.014463417 0
0.06511493 0.21503094 -0.014554305 0
0.075040244 0.21493047 -0.014141165 0
0.085037455 0.21496488 -0.014368721 0
0.095134377 0.21495289 -0.014269842 0
0.10504326 0.21491295 -0.014261359 0
0.11519547 0.2149156 -0.014444999 0
0.12518363 0.21504027 -0.014581822 0
0.13514131 0.21494183 -0.014259133 0
0.14513585 0.21493292 -0.013893777 0
0.15504366 0.21503937 -0.013465676 0
0.16530815 0.21493334 -0.014212671 0
0.17509009 0.21488471 -0.014021819 0
0.18510912 0.21474573 -0.013749722 0
0.19495466 0.21480191 -0.013494164 0
0.20515659 0.21459541 -0.012462694 0
0.21536079 0.21469791 -0.012320491 0
0.22513933 0.2149118 -0.011912476 0
0.23514956 0.21486335 -0.011635469 0
0.24480283 0.21516976 -0.011007893 0
0.25196606 0.21359788 -0.011073376 0
0.2533811 0.20383285 -0.0130443 0
-0.26286477 0.22595309 -0.014924964 0
-0.2565957 0.22488455 -0.016031666 0
-0.24700154 0.22245751 -0.018616593 0
-0.073148318 0.22498567 -0.016920237 0
-0.06518437 0.22487009 -0.016961219 0
-0.055155657 0.22501747 -0.016790921 0
-0.046395436 0.22459128 -0.017230149 0
-0.035012409 0.22511366 -0.016288403 0
-0.025012163 0.22516671 -0.015649313 0
-0.015019578 0.22503176 -0.015518171 0
-0.0050415206 0.22527859 -0.015438927 0
0.0050127497 0.22523043 -0.015147013 0
0.01405998 0.22549884 -0.014867423 0
0.027096383 0.22433142 -0.015361476 0
0.035045967 0.22515945 -0.014989517 0
0.045051247 0.22513321 -0.01474818 0
0.055086352 0.22508588 -0.014682863 0
0.065066881 0.2250125 -0.014568929 0
0.075136028 0.22497892 -0.014485215 0
0.08508911 0.22504841 -0.014624798 0
0.095143057 0.22497427 -0.01437288 0
0.10517775 0.22514895 -0.014898084 0
0.1151507 0.22503753 -0.014542789 0
0.12513831 0.22493897 -0.014539154 0
0.13520634 0.2248919 -0.014435345 0
0.1451592 0.22475484 -0.01397899 0
0.15516169 0.2249396 -0.014137192 0
0.16509342 0.22484417 -0.014058057 0
0.17530912 0.22496787 -0.014270414 0
0.18467861 0.22484583 -0.013078321 0
0.19498496 0.22481646 -0.012848689 0
0.20511171 0.22487299 -0.012504261 0
0.21554434 0.22505398 -0.012600895 0
0.22510697 0.22510664 -0.011473882 0
0.23503757 0.22465929 -0.011116276 0
0.24476381 0.22521739 -0.011000561 0
0.25161791 0.21957862 -0.011076473 0
0.25209877 0.20917426 -0.013338924 0
-0.26285991 0.23784615 -0.017395554 0
-0.25652972 0.23563492 -0.01779663 0
-0.24789698 0.23828936 -0.017999968 0
-0.08048629 0.23859024 -0.016111083 0
-0.074385568 0.23552705 -0.01738853 0
-0.065262482 0.23503888 -0.01730196 0
-0.055284794 0.23494731 -0.016808718 0
-0.045040388 0.23526931 -0.016608901 0
-0.035171349 0.23512936 -0.016827665 0
-0.025117975 0.23530914 -0.016193232 0
-0.015167985 0.23528975 -0.016124848 0
-0.0049574021 0.2349163 -0.014698852 0
0.0049620466 0.23511885 -0.015402745 0
0.014978303 0.23519291 -0.015672609 0
0.023140436 0.23683631 -0.015693638 0
0.036063511 0.23459201 -0.014980789 0
0.045059681 0.23520297 -0.01506855 0
0.05518518 0.23521984 -0.015065114 0
0.065044127 0.23506825 -0.014683272 0
0.075116485 0.23502104 -0.014537601 0
0.085149415 0.23515835 -0.014902887 0
0.095171787 0.23508483 -0.014673876 0
0.10512336 0.23504099 -0.014739954 0
0.11516347 0.23500475 -0.014603015 0
0.12511511 0.23504838 -0.014503508 0
0.13528693 0.23507565 -0.014529795 0
0.14530438 0.23516296 -0.014738188 0
0.15513261 0.23486352 -0.01427009 0
0.16515894 0.23475072 -0.013803993 0
0.17522627 0.23485051 -0.014258186 0
0.18500721 0.23479007 -0.013822421 0
0.19485715 0.23481683 -0.012830119 0
0.20533842 0.23495013 -0.01240569 0
0.2151181 0.23511262 -0.011477033 0
0.22519404 0.23594919 -0.011055873 0
0.23436995 0.23469242 -0.011005668 0
0.24280111 0.23471162 -0.010999961 0
0.25632453 0.23493639 -0.010999978 0
-0.26419115 0.24499545 -0.01750333 0
-0.25800803 0.24398381 -0.017730838 0
-0.24609765 0.24193145 -0.017043456 0
-0.081096649 0.24683364 -0.016675889 0
-0.075046264 0.24528667 -0.017292812 0
-0.065199412 0.24513628 -0.017458158 0
-0.055135634 0.24507874 -0.016754981 0
-0.045358792 0.24526367 -0.017062809 0
-0.035125028 0.24480367 -0.01647537 0
-0.025107468 0.24511811 -0.016689267 0
-0.014977948 0.24500006 -0.015957898 0
-0.0050399248 0.24534389 -0.015392271 0
0.004959228 0.24526787 -0.016314866 0
0.015113303 0.24514969 -0.016257552 0
0.024759145 0.24549468 -0.016173251 0
0.035756126 0.24458417 -0.015221021 0
0.045214288 0.24502742 -0.015009167 0
0.055111639 0.24512933 -0.015023588 0
0.065143786 0.24522455 -0.015075962 0
0.075057335 0.24503735 -0.014540063 0
0.085122958 0.24503499 -0.014664984 0
0.095116153 0.24499819 -0.014567891 0
0.10512946 0.24503902 -0.01459889 0
0.11520744 0.24508329 -0.014740385 0
0.12522101 0.24518511 -0.014855426 0
0.1352246 0.24495493 -0.014338237 0
0.14530578 0.24511516 -0.014794528 0
0.15513138 0.24499203 -0.014427611 0
0.164847 0.245015 -0.013850123 0
0.17530878 0.24499749 -0.014242762 0
0.18494225 0.2448592 -0.013501156 0
0.19496441 0.24477333 -0.012659015 0
0.20502093 0.24505949 -0.012225277 0
0.21525392 0.24535444 -0.011159567 0
0.22457956 0.2452348 -0.011029493 0
0.23268452 0.24519968 -0.011000024 0
0.2446094 0.24254 -0.010999951 0
0.25267875 0.24345082 -0.010999978 0
-0.26543736 0.25308728 -0.017664801 0
-0.25862679 0.25168112 -0.017131118 0
-0.081829697 0.25452888 -0.017249113 0
-0.075261801 0.25374055 -0.016567251 0
-0.065371603 0.25357112 -0.015536507 0
-0.055407692 0.25273865 -0.015340012 0
-0.044594832 0.25272238 -0.015391105 0
-0.035278916 0.25513801 -0.017456463 0
-0.025183769 0.25509149 -0.01762503 0
-0.015006158 0.25504377 -0.017331269 0
-0.0051265252 0.25497937 -0.016126469 0
0.0052753333 0.25486898 -0.015903588 0
0.015052046 0.25509399 -0.015892411 0
0.02507522 0.25520274 -0.01578214 0
0.032271612 0.25595641 -0.015965046 0
0.046807513 0.25477129 -0.015109275 0
0.055106539 0.25525925 -0.015328735 0
0.065122955 0.25516754 -0.014928175 0
0.075101048 0.25520927 -0.014915565 0
0.085165478 0.25505722 -0.014602488 0
0.095173992 0.25511888 -0.014816287 0
0.10524134 0.25524482 -0.015158717 0
0.11523788 0.25521484 -0.015033348 0
0.12518795 0.25504181 -0.01463059 0
0.13521056 0.25497264 -0.014516027 0
0.14515844 0.25491723 -0.014249932 0
0.15510295 0.25479466 -0.01403399 0
0.16526708 0.25480542 -0.014026514 0
0.17511718 0.25475019 -0.013890115 0
0.18503992 0.25494218 -0.013544111 0
0.19495018 0.25513294 -0.012218649 0
0.20491533 0.25499618 -0.011294454 0
0.21482924 0.25502059 -0.011021337 0
0.22384544 0.25358877 -0.011068817 0
0.23443003 0.25136775 -0.01102527 0
0.24090841 0.2509495 -0.010999978 0
-0.26818985 0.26078135 -0.019999981 0
-0.080793604 0.26078129 -0.019999981 0
-0.062743381 0.26808792 -0.011035929 0
-0.05887115 0.26830298 -0.011041644 0
-0.034292404 0.26489082 -0.017393513 0
-0.025263822 0.26513234 -0.018239018 0
-0.015060892 0.26518038 -0.018315786 0
-0.0050854129 0.26503301 -0.01722002 0
0.0049384534 0.2652863 -0.017208846 0
0.015113685 0.26517135 -0.01685784 0
0.025108384 0.26519912 -0.016121592 0
0.034575656 0.26535708 -0.016080951 0
0.046423353 0.26502737 -0.015107704 0
0.055278432 0.26515371 -0.016234621 0
0.065199092 0.26502687 -0.015630718 0
0.075123191 0.26480588 -0.015030165 0
0.085166156 0.26494873 -0.014830274 0
0.095218286 0.26503658 -0.015074169 0
0.10520545 0.26496628 -0.01513382 0
0.11521823 0.26516125 -0.015177687 0
0.12519042 0.26507798 -0.014831545 0
0.13542384 0.26491967 -0.014828737 0
0.14518097 0.26496863 -0.014500693 0
0.15516689 0.26488304 -0.013944169 0
0.16489939 0.26483253 -0.013106517 0
0.17495741 0.26470116 -0.01213376 0
0.18502387 0.26472309 -0.011872397 0
0.19501324 0.26490092 -0.011570162 0
0.20467837 0.2652618 -0.011100791 0
0.21268018 0.26555723 -0.011042009 0
0.22602977 0.2682282 -0.010999958 0
0.23172569 0.26771075 -0.010999978 0
0.25722709 0.26606962 -0.010999978 0
-0.063102782 0.27101406 -0.011142833 0
-0.059221189 0.27066132 -0.011333306 0
-0.045536671 0.27906606 -0.011310456 0
-0.033706106 0.27523625 -0.019021489 0
-0.025119187 0.27504641 -0.018330839 0
-0.015110773 0.27524242 -0.01844677 0
-0.0050069517 0.27545881 -0.018467097 0
0.0050078714 0.27512589 -0.017511662 0
0.015308468 0.27531269 -0.018046174 0
0.025039366 0.27498257 -0.017131276 0
0.035258479 0.27493733 -0.017057193 0
0.043989874 0.27555439 -0.016146807 0
0.055718459 0.2743949 -0.015910219 0
0.06521906 0.27470922 -0.01589682 0
0.075269811 0.27478573 -0.015973518 0
0.085232124 0.27481532 -0.015316699 0
0.095275439 0.27496535 -0.015559725 0
0.10515814 0.27471384 -0.015085663 0
0.11509164 0.27481914 -0.015019738 0
0.12514389 0.27481616 -0.014609051 0
0.13512634 0.27454582 -0.014595489 0
0.14521018 0.27481702 -0.014137837 0
0.15497413 0.27474043 -0.013975213 0
0.1647521 0.27508873 -0.01291937 0
0.17483746 0.27470845 -0.012826758 0
0.18496983 0.2749134 -0.011999276 0
0.19517563 0.27477226 -0.011412897 0
0.20492202 0.27494934 -0.011198954 0
0.21312061 0.27436662 -0.011161809 0
0.22436194 0.27150175 -0.010999978 0
0.23276441 0.27590388 -0.010999978 0
-0.053174809 0.28775254 -0.011453038 0
-0.046114415 0.28500652 -0.011932031 0
-0.03328006 0.28482369 -0.018739941 0
-0.025045734 0.28513813 -0.018680295 0
-0.014805155 0.28496191 -0.018315181 0
-0.0049720742 0.2849232 -0.01794414 0
0.0050026109 0.28491789 -0.017557589 0
0.015010377 0.28475052 -0.016997786 0
0.025157372 0.28518257 -0.017957682 0
0.035253279 0.28511879 -0.017437598 0
0.045054018 0.28499767 -0.016700324 0
0.056160502 0.283986 -0.016563732 0
0.065241337 0.28507727 -0.016440401 0
0.075245187 0.28473902 -0.015738102 0
0.085225187 0.28490233 -0.016036002 0
0.095275082 0.2849482 -0.016018746 0
0.10523181 0.28488398 -0.015715679 0
0.11506388 0.28477946 -0.015451317 0
0.12511644 0.28490961 -0.014953125 0
0.13518338 0.28486529 -0.014702617 0
0.1450559 0.28466189 -0.013755896 0
0.15505354 0.28479293 -0.013709166 0
0.16495013 0.28490654 -0.013160328 0
0.17484663 0.28477368 -0.012252635 0
0.1846818 0.28485319 -0.011872858 0
0.19491066 0.28499049 -0.011429433 0
0.20474046 0.28518289 -0.011044342 0
0.21200451 0.28321907 -0.011124006 0
0.22218169 0.28404248 -0.010999978 0
0.23473126 0.2834025 -0.010999978 0
-0.053060696 0.29391801 -0.011898622 0
-0.045900874 0.29533234 -0.011843436 0
-0.032645583 0.29411542 -0.017852195 0
-0.024550904 0.29457939 -0.018391481 0
-0.015599548 0.29499117 -0.018096181 0
-0.0044896957 0.29510298 -0.018120138 0
0.0047366438 0.29512662 -0.017761385 0
0.015401118 0.29463091 -0.01743757 0
0.02614576 0.29312092 -0.018478749 0
0.035218537 0.29478467 -0.017141195 0
0.044936065 0.29457808 -0.016583417 0
0.053118289 0.29333171 -0.016496938 0
0.065593727 0.2947371 -0.016179785 0
0.075269684 0.29479477 -0.015884692 0
0.085395969 0.29483315 -0.016069416 0
0.095332585 0.29481906 -0.016145565 0
0.1052224 0.2948544 -0.016106106 0
0.11516971 0.29477921 -0.015346593 0
0.12510751 0.2947228 -0.014315009 0
0.13513733 0.2946884 -0.014441661 0
0.14530112 0.29491532 -0.014302103 0
0.15487678 0.29478636 -0.013190309 0
0.16477647 0.29469332 -0.012319267 0
0.17490533 0.29470524 -0.011312385 0
0.18485868 0.29481259 -0.011767972 0
0.19389412 0.29456222 -0.011142025 0
0.2048725 0.29356289 -0.011052534 0
0.21311526 0.29621804 -0.01099996 0
-0.071138538 0.30781603 -0.010999978 0
-0.069147095 0.30792668 -0.010999978 0
-0.052320383 0.30466416 -0.012189966 0
-0.045168016 0.30442676 -0.01201418 0
-0.034210373 0.30385467 -0.014811059 0
-0.025206652 0.3051751 -0.01801699 0
-0.01498305 0.30476794 -0.018650828 0
-0.0051131384 0.30449516 -0.017918348 0
0.0052868389 0.30492014 -0.017519239 0
0.014483618 0.30383354 -0.018525301 0
0.02482374 0.30677193 -0.017539257 0
0.036025874 0.30226004 -0.01692011 0
0.044887841 0.30468717 -0.015887406 0
0.051426597 0.30517504 -0.016577557 0
0.066177554 0.3043007 -0.015232494 0
0.075190589 0.30475807 -0.015873389 0
0.085272782 0.30474809 -0.015762851 0
0.095250472 0.30466384 -0.015619741 0
0.10521853 0.30488467 -0.015710913 0
0.11490668 0.30448818 -0.014407791 0
0.12519221 0.304932 -0.014062091 0
0.13518138 0.30471116 -0.014430637 0
0.14489795 0.30453238 -0.012929323 0
0.1548654 0.30466226 -0.012317039 0
0.16479975 0.30444741 -0.011815156 0
0.17479247 0.30479228 -0.012081945 0
0.18485829 0.30414882 -0.011566069 0
0.19395216 0.30488807 -0.011267661 0
0.20459659 0.3064349 -0.011006732 0
0.21309732 0.30628893 -0.010999954 0
0.22291256 0.30718049 -0.011023233 0
-0.051977325 0.31057638 -0.014870934 0
-0.030635681 0.31051251 -0.015374966 0
-0.024585513 0.31149977 -0.018253986 0
-0.014949525 0.31141937 -0.018703008 0
-0.0051674629 0.3113896 -0.018299922 0
0.0048433444 0.31112751 -0.017514184 0
0.014418757 0.31166846 -0.018376417 0
0.02518844 0.31137186 -0.017815435 0
0.03298153 0.31145048 -0.016822182 0
0.04454099 0.31117174 -0.017033689 0
0.050817709 0.31072414 -0.01699996 0
0.066350929 0.31084111 -0.015662897 0
0.07591778 0.31088561 -0.016202513 0
0.084924258 0.31088543 -0.016135853 0
0.095826976 0.31070277 -0.015711052 0
0.10514691 0.31056401 -0.015521655 0
0.11470384 0.31069875 -0.015279076 0
0.12469157 0.31044844 -0.014698624 0
0.13245115 0.31016058 -0.013999939 0
0.15429674 0.31016052 -0.013999939 0
0.16840939 0.3101604 -0.013999939 0
0.17187129 0.31016055 -0.013999939 0
0.24430071 -0.36257246 -0.0099999905 0
0.25769168 -0.36710918 -0.0098766973 0
0.2601333 -0.36497378 -0.0099999905 0
0.09201318 -0.35086375 -0.0099999905 0
0.25572753 -0.35757831 -0.0083999634 0
0.091497712 -0.34858084 -0.0099999905 0
0.14640646 -0.34224918 -0.0018863421 0
0.2576651 -0.34510913 -0.004999964 0
0.2601333 -0.34545121 -0.0099999905 0
0.022320824 -0.28181833 -0.00099998713 0
0.10559193 -0.26360559 -0.0084289964 0
0.11133868 -0.26100472 -0.0085731223 0
0.10872789 -0.25935072 -0.0089483494 0
0.11292844 -0.258183 -0.0088658696 0
0.25232771 -0.24272758 -0.0094999634 0
0.22942324 -0.2428017 -0.011571412 0
0.17714851 -0.23035553 -0.0042499574 0
0.18494792 -0.23052748 -0.0089437915 0
0.19109581 -0.23011255 -0.0099999905 0
0.22685491 -0.23099722 -0.0089755701 0
0.23356912 -0.23109719 -0.0099230641 0
0.24688601 -0.23486075 -0.0098914141 0
0.25269461 -0.23821418 -0.0099999905 0
0.17818293 -0.2275413 -0.0033140539 0
0.18511054 -0.22716928 -0.0063274102 0
0.1919535 -0.2258662 -0.0066208439 0
0.20842798 -0.22392602 -0.0063154893 0
0.21400063 -0.22367916 -0.0056647337 0
0.2241542 -0.22655061 -0.0050687972 0
0.23160565 -0.22767715 -0.0098695522 0
-0.020402651 -0.21649264 -0.0089999437 0
-0.018225888 -0.21593684 -0.0099999905 0
-0.0038660907 -0.19688249 -0.0099999905 0
0.037085474 -0.18395978 -0.0096511478 0
0.099966303 -0.18528418 -0.0099999905 0
0.1010709 -0.18583648 -0.0099999905 0
0.1192643 -0.18291257 -0.0099999905 0
0.12254421 -0.18214051 -0.0095691234 0
-0.01183782 -0.17366463 -0.0094090616 0
-0.0090734912 -0.17400149 -0.0099999905 0
0.080083497 -0.17147669 -0.0099999905 0
0.11591671 -0.1708139 -0.0099999905 0
0.0071799066 -0.1626399 -0.0099999905 0
0.14746408 -0.16926751 -0.0099999905 0
0.15777369 -0.15306669 -0.0099999905 0
0.24874979 -0.15481567 -0.0099999905 0
0.25256774 -0.15482877 -0.0099999905 0
-0.010493695 -0.14165248 -0.0099999905 0
-0.008944273 -0.14338848 -0.0097999815 0
0.15630089 -0.1405479 -0.0099999905 0
0.15540078 -0.13810872 -0.0099333208 0
0.24356426 -0.13502491 -0.0099999905 0
-0.0077264961 -0.12612453 -0.0094999671 0
0.0038661044 -0.1217697 -0.0099999905 0
0.02730817 -0.12434709 -0.0099999905 0
0.14904113 -0.12329447 -0.0099615268 0
0.15261985 -0.12307019 -0.0098708207 0
0.18446818 -0.1228743 -0.0099999905 0
0.0016569039 -0.11293289 -0.0099999905 0
0.012702903 -0.11348519 -0.0099999905 0
0.024971852 -0.1121849 -0.0098888744 0
0.046209101 -0.11256469 -0.0099999905 0
0.1165353 -0.1129329 -0.0099999905 0
0.12426749 -0.1123806 -0.0099999905 0
0.13862729 -0.1107237 -0.0099999905 0
0.14856869 -0.116799 -0.0099999905 0
0.15781124 -0.11479881 -0.0099999905 0
0.16329256 -0.11464579 -0.010000014 0
0.1740271 -0.11261731 -0.0099999905 0
0.18612508 -0.1184559 -0.0099999905 0
0.19804311 -0.11169747 -0.0099999905 0
0.20083746 -0.1119223 -0.0099999905 0
0.24245968 -0.11072371 -0.0099999905 0
0.25902867 -0.11956051 -0.0099999905 0
0.0093891025 -0.1063053 -0.0099999905 0
0.012617933 -0.1082596 -0.0099999905 0
0.023827812 -0.10845567 -0.0099512078 0
0.046945501 -0.1040961 -0.0099999905 0
0.10535122 -0.10637435 -0.0099999905 0
0.11874449 -0.10630531 -0.0099999905 0
0.12821248 -0.1032282 -0.0099999905 0
0.13453117 -0.10289152 -0.0096818302 0
0.14394139 -0.10293919 -0.0099999905 0
0.15077789 -0.10078231 -0.0099999905 0
0.16481514 -0.10463856 -0.0099999905 0
0.17507908 -0.1096191 -0.0099999905 0
0.19773832 -0.10961913 -0.0099999905 0
0.2004849 -0.10961913 -0.0099999905 0
0.21681376 -0.1022231 -0.0099999905 0
0.2265608 -0.10223096 -0.0099999905 0
0.23637201 -0.10181846 -0.0099999905 0
0.24390347 -0.10335757 -0.010000093 0
0.25529578 -0.10251541 -0.0099999905 0
0.26013327 -0.10151871 -0.0099999905 0
0.065171391 -0.098573104 -0.0099999905 0
0.1295628 -0.095072731 -0.0099666556 0
0.13443491 -0.097284518 -0.0096767507 0
0.14558631 -0.098040916 -0.0099999905 0
0.16513768 -0.099401563 -0.0099999905 0
0.21739908 -0.099470578 -0.0099999905 0
0.22328697 -0.099204302 -0.0099999905 0
0.23600571 -0.098872937 -0.0099999905 0
0.24410993 -0.099331684 -0.0099999905 0
0.25457954 -0.093786508 -0.0099999905 0
0.26013327 -0.092103317 -0.0099999905 0
0.008219528 -0.084668115 -0.0099999905 0
0.010493702 -0.083661005 -0.0099999905 0
0.11791095 -0.083514549 -0.0088739563 0
0.12203413 -0.083859004 -0.0087502124 0
0.13552061 -0.081313714 -0.0099999905 0
0.14746408 -0.088631704 -0.0099999905 0
0.15871888 -0.083804548 -0.0099999905 0
0.16130048 -0.083914325 -0.0099999905 0
0.17330214 -0.084213287 -0.0099999905 0
0.18789244 -0.085538827 -0.0099999905 0
0.23307058 -0.089736313 -0.0099999905 0
0.25373572 -0.088248149 -0.0099999905 0
0.242396 -0.1014302 -0.010744674 0
-0.0015188231 -0.076343022 -0.0099999905 0
0.0059192018 -0.073326401 -0.0096956324 0
0.015672911 -0.073670246 -0.0098461369 0
0.108619 -0.071510404 -0.0099999905 0
0.11637911 -0.078003421 -0.0093882848 0
0.12182612 -0.078960076 -0.0099506611 0
0.13450345 -0.07797844 -0.0099999905 0
0.14880298 -0.073803298 -0.0099999905 0
0.15285276 -0.0737345 -0.0099999905 0
0.16425404 -0.079021677 -0.0099999905 0
0.17839289 -0.078690305 -0.0099999905 0
0.18530691 -0.072553657 -0.0099999905 0
0.20435098 -0.071510419 -0.0099999905 0
0.21323791 -0.074659251 -0.0099999905 0
0.22782373 -0.071510412 -0.0099999905 0
0.23219609 -0.071326323 -0.0099999905 0
0.24654745 -0.072748065 -0.010000022 0
0.25113267 -0.07269688 -0.0099999905 0
0.016839232 -0.062114507 -0.0097499788 0
0.025219508 -0.061567586 -0.0099444324 0
0.031481095 -0.061016701 -0.0099999905 0
0.059096094 -0.0698535 -0.0099999905 0
0.063987896 -0.067644306 -0.0099999905 0
0.093338691 -0.061016705 -0.0099999905 0
0.10773607 -0.067881063 -0.0099746725 0
0.11554112 -0.061495353 -0.0099999905 0
0.12979048 -0.06285771 -0.0099999905 0
0.13588877 -0.067345165 -0.0099999905 0
0.14389321 -0.063204184 -0.0099999905 0
0.15820885 -0.062656872 -0.0099999905 0
0.16528697 -0.061643645 -0.0099999905 0
0.17351054 -0.061149277 -0.0099999905 0
0.1873492 -0.062166896 -0.0099999905 0
0.19445126 -0.062705971 -0.010000029 0
0.20103723 -0.065366074 -0.0099999905 0
0.21573529 -0.06260787 -0.010000055 0
0.22416474 -0.06357111 -0.0099999905 0
0.23660165 -0.064473376 -0.010000117 0
0.24241878 -0.064829215 -0.0099999905 0
0.25606206 -0.062789239 -0.010000077 0
0.26013348 -0.062462442 -0.0099999905 0
-0.030376498 -0.0532845 -0.0099999905 0
-0.023962628 -0.058360927 -0.0097999815 0
0.018778197 -0.053928852 -0.0099999905 0
0.025699142 -0.057598919 -0.0099189831 0
0.031536363 -0.056254666 -0.0099915871 0
0.087348886 -0.052071854 -0.0098921796 0
0.094889656 -0.054072801 -0.0098879421 0
0.10465164 -0.053851239 -0.01000005 0
0.11383827 -0.056584395 -0.0099999905 0
0.12806863 -0.051757582 -0.0099999905 0
0.14666483 -0.05632598 -0.010000038 0
0.15405168 -0.053010836 -0.0099999905 0
0.16732554 -0.056716695 -0.010000128 0
0.17240062 -0.057047814 -0.0099958982 0
0.18636447 -0.058028881 -0.010000098 0
0.19485193 -0.058141839 -0.010000108 0
0.20420974 -0.053943478 -0.0099999905 0
0.21544287 -0.054930478 -0.0099994568 0
0.22164802 -0.056146432 -0.0099999905 0
0.23596443 -0.055839282 -0.010000145 0
0.2460853 -0.05430096 -0.0099888854 0
0.25320995 -0.0549003 -0.009996485 0
0.25571644 -0.061495442 -0.010196515 0
-0.012664808 -0.045933194 -0.0099999905 0
-0.0046732831 -0.042544026 -0.0091515165 0
0.0014496918 -0.040684633 -0.0086358571 0
0.016955609 -0.049197473 -0.0099999905 0
0.020987399 -0.049418405 -0.0099999905 0
0.038246777 -0.047347277 -0.0099999905 0
0.041020822 -0.04630544 -0.0099999905 0
0.086561657 -0.046555355 -0.0097089531 0
0.094566822 -0.048148848 -0.0099949744 0
0.10468847 -0.04755215 -0.010000088 0
0.11624294 -0.043570511 -0.0099999905 0
0.12624742 -0.044293404 -0.010000166 0
0.13343465 -0.042372137 -0.0099909846 0
0.14753446 -0.044848021 -0.0099985516 0
0.15209119 -0.04524228 -0.010000117 0
0.16542587 -0.04790559 -0.0099999905 0
0.17715827 -0.042638041 -0.010000057 0
0.18679664 -0.043946821 -0.010000147 0
0.19247586 -0.044074327 -0.010000133 0
0.20560656 -0.044637103 -0.010000125 0
0.21611384 -0.044305839 -0.010000152 0
0.22436623 -0.043777008 -0.010000166 0
0.23518375 -0.044241611 -0.0099987034 0
0.2448016 -0.044746455 -0.009973187 0
0.25265771 -0.044897947 -0.010018344 0
0.25800711 -0.04957908 -0.010267084 0
-0.02129296 -0.036797747 -0.0099629518 0
-0.012183089 -0.031127527 -0.0099999905 0
-0.0016978628 -0.03744112 -0.0094446698 0
0.0046409583 -0.034958769 -0.0094373319 0
0.011664317 -0.03149879 -0.0085314671 0
0.044183996 -0.036715508 -0.0099999905 0
0.05737783 -0.032174371 -0.0099999905 0
0.066552147 -0.031192508 -0.0099999905 0
0.074639358 -0.033796221 -0.0099999905 0
0.08615879 -0.033677857 -0.0099999905 0
0.097882181 -0.03123421 -0.0099999905 0
0.1015807 -0.032891899 -0.0099999905 0
0.11917895 -0.03377502 -0.0099999905 0
0.12475852 -0.032311235 -0.010000108 0
0.13602313 -0.034074545 -0.010000163 0
0.14463018 -0.033218183 -0.0099989949 0
0.15553609 -0.033519398 -0.0099992221 0
0.16467047 -0.032785784 -0.01000012 0
0.17547111 -0.033467278 -0.0099925986 0
0.18460405 -0.034467641 -0.010000179 0
0.19391032 -0.034677852 -0.010000143 0
0.20554362 -0.033569735 -0.0099971741 0
0.21571244 -0.034338072 -0.0099976128 0
0.22381851 -0.034323514 -0.0099980906 0
0.23521565 -0.034061275 -0.0099457018 0
0.24465743 -0.034543343 -0.0099207768 0
0.25271165 -0.035099111 -0.010033813 0
0.25609335 -0.040736508 -0.010265797 0
-0.0123347 -0.028246904 -0.0099999905 0
0.0087718712 -0.027190881 -0.0099134482 0
0.013874277 -0.027010981 -0.0092649795 0
0.022485714 -0.023019725 -0.0094774533 0
0.0340374 -0.020357475 -0.0079411408 0
0.040480662 -0.020527562 -0.0096666412 0
0.065723695 -0.028983308 -0.0099999905 0
0.072810099 -0.027776759 -0.0099999905 0
0.087815702 -0.027878709 -0.0099999905 0
0.096360467 -0.028373897 -0.0099999905 0
0.10107089 -0.02898331 -0.0099999905 0
0.11939985 -0.027307721 -0.0099999905 0
0.12437733 -0.027549077 -0.01000012 0
0.13694428 -0.02755682 -0.010000085 0
0.14512798 -0.027328163 -0.0099992743 0
0.15555134 -0.027109686 -0.0099966703 0
0.16505021 -0.027412962 -0.0099992994 0
0.17558971 -0.027547373 -0.009996389 0
0.18350913 -0.027244346 -0.010000085 0
0.19359571 -0.026861316 -0.0099999905 0
0.20557031 -0.027730552 -0.010000116 0
0.21485347 -0.027488619 -0.0099984063 0
0.22508697 -0.027696038 -0.0099921282 0
0.23517908 -0.02686481 -0.0096920962 0
0.24422865 -0.026875302 -0.0099146841 0
0.25215366 -0.027610626 -0.010023092 0
0.25365174 -0.03483237 -0.010358925 0
0.0065594781 -0.018137598 -0.0098571265 0
0.028278923 -0.016989222 -0.0097565958 0
0.033456109 -0.015260239 -0.0093418611 0
0.040487267 -0.015104622 -0.0091999648 0
0.063850664 -0.015295873 -0.0099999905 0
0.11322149 -0.010205112 -0.0099999905 0
0.13581558 -0.010807622 -0.0099999905 0
0.14586243 -0.015065352 -0.0099999905 0
0.15766101 -0.01456717 -0.0099999905 0
0.16235048 -0.015012155 -0.0099999905 0
0.1874506 -0.013739837 -0.0099999905 0
0.19173305 -0.013179042 -0.0099999905 0
0.20676732 -0.014485441 -0.0099999905 0
0.21353711 -0.012639745 -0.0099999905 0
0.22840722 -0.013122644 -0.009980225 0
0.23550726 -0.01212904 -0.0098722186 0
0.24199709 -0.011592592 -0.0099999905 0
0.25199276 -0.014327516 -0.010020005 0
0.010460383 -0.0015068203 -0.0079999566 0
0.038403455 -0.0074840761 -0.0099821324 0
0.043917011 -0.0073183686 -0.0094461646 0
0.051093075 -0.002359309 -0.0089166313 0
0.060937088 -0.00026370957 -0.0099999905 0
0.11322149 -0.0091005117 -0.0099999905 0
0.12979048 -0.0002637133 -0.0099999905 0
0.13473794 -0.004919677 -0.009999102 0
0.14567314 -0.0050653559 -0.009977961 0
0.15341243 -0.0042953189 -0.0099960528 0
0.16548289 -0.0041298163 -0.0099999905 0
0.17841698 -0.0038176463 -0.0099999905 0
0.18280898 -0.0045843832 -0.0099985562 0
0.19938028 -0.0054185167 -0.0099999905 0
0.20547582 -0.0026794116 -0.0099321697 0
0.21497217 -0.0027400746 -0.009984686 0
0.22567716 -0.0016174394 -0.0099604148 0
0.23624125 -0.0048847869 -0.0098067066 0
0.2429906 -0.0045033875 -0.0098623289 0
0.25317639 -0.0065573347 -0.010010038 0
0.25680107 -0.01047374 -0.010252282 0
0.0082691535 0.0014918192 -0.0088332891 0
0.057573609 0.0065536369 -0.0096878521 0
0.061151121 0.005453167 -0.0099861491 0
0.12932241 0.0061017787 -0.0099999905 0
0.13402554 0.0058797169 -0.010000074 0
0.14491573 0.0063493792 -0.0099802995 0
0.15406838 0.0065716514 -0.00997514 0
0.16512434 0.0082709827 -0.0099497028 0
0.17704883 0.0081635267 -0.0099999905 0
0.18422809 0.0065738214 -0.0099887056 0
0.19308807 0.0062948428 -0.0099999905 0
0.20612602 0.0049368422 -0.0099222334 0
0.21476308 0.0061162286 -0.0098868273 0
0.22409287 0.0045457133 -0.009913072 0
0.23498449 0.0065791053 -0.0099690119 0
0.24547985 0.0051133791 -0.0098105231 0
0.25309184 0.0055957944 -0.0097474148 0
0.25819567 0.0030103526 -0.010115308 0
0.0062710443 0.016956486 -0.0094386665 0
0.010493696 0.011886895 -0.0099999905 0
0.047007218 0.018052744 -0.0093966583 0
0.052292377 0.016240515 -0.0096650682 0
0.1048945 0.014011116 -0.0099999905 0
0.1196913 0.018409282 -0.0099999905 0
0.12319806 0.015749775 -0.0099887541 0
0.13731112 0.014298175 -0.0099999905 0
0.14663604 0.015005159 -0.0099303303 0
0.15467095 0.014794041 -0.0099568181 0
0.16528669 0.015340213 -0.009952236 0
0.17521073 0.015519082 -0.0096477251 0
0.18310225 0.016201764 -0.0097891102 0
0.19492482 0.016049039 -0.0099816881 0
0.20689894 0.015190721 -0.009837769 0
0.21416835 0.014868668 -0.0096540684 0
0.2251135 0.014831039 -0.0098528201 0
0.23525506 0.014649178 -0.0096955132 0
0.24384227 0.015382211 -0.009924504 0
0.25431824 0.014998809 -0.0099741602 0
0.25982928 0.013286036 -0.010065058 0
0.0054557892 0.023188403 -0.0093777413 0
0.03704121 0.027039522 -0.009350325 0
0.044986334 0.02388878 -0.0098853018 0
0.051362548 0.022463549 -0.0098728053 0
0.070142083 0.020723686 -0.0099999905 0
0.08846321 0.025732478 -0.0099999905 0
0.090970598 0.024809994 -0.0099999905 0
0.10634516 0.027634928 -0.0099999905 0
0.11790714 0.027906422 -0.0099498946 0
0.12533469 0.026035665 -0.0098048151 0
0.13577448 0.026285207 -0.0094859824 0
0.1451847 0.025422627 -0.0092622284 0
0.15479727 0.025333049 -0.0090344148 0
0.16502127 0.025149764 -0.0093116499 0
0.17477505 0.025116878 -0.0089517292 0
0.18453577 0.025352702 -0.0090932082 0
0.19506297 0.025457392 -0.0096003925 0
0.20477395 0.025616042 -0.0094442032 0
0.21460325 0.025437946 -0.0093419757 0
0.2249074 0.025634773 -0.0096533345 0
0.23499538 0.025519297 -0.0095568169 0
0.24482872 0.026024487 -0.0097162863 0
0.25344875 0.02510432 -0.0092921993 0
0.2564202 0.011256567 -0.010401902 0
0.027291533 0.037361477 -0.0096270274 0
0.034410466 0.032021038 -0.0099014603 0
0.040925421 0.030775556 -0.0099999905 0
0.078357555 0.039432846 -0.0099999905 0
0.085186742 0.034023061 -0.0099999905 0
0.095309064 0.035471585 -0.0099999905 0
0.10523368 0.035160884 -0.0099897133 0
0.11707441 0.035522368 -0.0098352954 0
0.12476013 0.034738895 -0.0098193567 0
0.13528088 0.035051387 -0.0091849333 0
0.14493242 0.034906998 -0.0086059757 0
0.15482311 0.034932259 -0.0085878624 0
0.16476332 0.034900945 -0.0085720671 0
0.17461576 0.034822613 -0.0081083113 0
0.18482488 0.034946136 -0.0083299652 0
0.19466971 0.03482838 -0.0089207739 0
0.20486021 0.035018388 -0.0087789362 0
0.21500593 0.034822993 -0.0082978001 0
0.22525617 0.034858759 -0.0086613614 0
0.23525654 0.034876313 -0.0088378005 0
0.24517165 0.035015061 -0.0091712838 0
0.25300378 0.034246501 -0.0089121955 0
0.26013327 0.032874275 -0.0099999905 0
0.0088609271 0.049355112 -0.0094117345 0
0.016315939 0.048252407 -0.0044471323 0
0.023310198 0.044620853 -0.0065458715 0
0.073962174 0.042401463 -0.0099999905 0
0.084501885 0.041711085 -0.0099999905 0
0.09878549 0.045906205 -0.009989785 0
0.10318998 0.043949004 -0.0099742217 0
0.11658189 0.044756506 -0.0098079909 0
0.12468536 0.045592796 -0.0096581532 0
0.1353696 0.04497914 -0.0096149677 0
0.14505069 0.04481674 -0.0087541193 0
0.1547859 0.044785287 -0.0083216364 0
0.1648161 0.044799384 -0.0088564204 0
0.17457584 0.044761341 -0.0082380455 0
0.18467884 0.044889014 -0.0084886542 0
0.19520564 0.044912696 -0.0087966518 0
0.20513141 0.044649784 -0.0083353631 0
0.21497828 0.044809181 -0.0085356468 0
0.22515321 0.044940304 -0.0090109045 0
0.23508912 0.044823799 -0.0083647184 0
0.24511114 0.044814538 -0.0087174568 0
0.25308284 0.044026796 -0.0088204769 0
0.25877398 0.035556957 -0.01036479 0
-0.00055230618 0.059384689 -0.0099999905 0
0.0067216652 0.056758743 -0.0091708032 0
0.01443285 0.053885829 -0.0088049639 0
0.020822691 0.051216561 -0.0095095895 0
0.056334589 0.051652491 -0.0099999905 0
0.088604681 0.058674593 -0.0099999905 0
0.095184281 0.054022498 -0.0099999905 0
0.10729946 0.053792305 -0.0099999905 0
0.11600493 0.054721572 -0.0098337578 0
0.12546718 0.054255396 -0.0095230434 0
0.13547735 0.054734856 -0.0094140936 0
0.14502871 0.054808885 -0.0090099052 0
0.15490682 0.054779857 -0.0088207508 0
0.16481391 0.054945815 -0.0091464147 0
0.17484847 0.054785211 -0.0090411305 0
0.18487413 0.0547834 -0.0091120005 0
0.19511609 0.054646663 -0.0093065184 0
0.20480119 0.054861102 -0.0087922504 0
0.21484077 0.055004016 -0.0091529228 0
0.22501284 0.054793727 -0.0089135105 0
0.235203 0.054806009 -0.0089972382 0
0.24499261 0.055035818 -0.0089769121 0
0.25302884 0.05411198 -0.0091927545 0
0.2568844 0.047178362 -0.010268591 0
-0.001294849 0.068236306 -0.0042752395 0
0.0047987122 0.064309813 -0.005511221 0
0.011375533 0.060693465 -0.009899986 0
0.064619087 0.06932608 -0.0099999905 0
0.08604832 0.062742665 -0.0099999905 0
0.093997315 0.064927943 -0.0099999905 0
0.10743266 0.066056617 -0.0097519932 0
0.11599977 0.064787857 -0.0097775357 0
0.12597126 0.064968698 -0.0096587557 0
0.13531944 0.065062493 -0.0094784638 0
0.14510426 0.06483791 -0.0093074879 0
0.15492176 0.064829692 -0.0092610819 0
